ply
format ascii 1.0
element vertex 780
property float x
property float y
property float z
end_header
0.007820111699402332 0.03596631810069084 0.172124981880188
0.00812810193747282 0.03598707169294357 0.17236517369747162
0.008434168063104153 0.03605353832244873 0.17260681092739105
0.008754243142902851 0.036109134554862976 0.17272573709487915
0.009076193906366825 0.03616100922226906 0.17296667397022247
0.009383541531860828 0.0361969992518425 0.1732073426246643
0.009703616611659527 0.036252595484256744 0.1733262687921524
0.01001096609979868 0.03628858923912048 0.17356693744659424
0.010331039316952229 0.03634417802095413 0.17368586361408234
0.017387058585882187 0.03731239214539528 0.17763791978359222
0.01773761957883835 0.03736928105354309 0.1777564138174057
0.018045607954263687 0.03739003837108612 0.17799662053585052
0.018364448100328445 0.037434112280607224 0.1779930591583252
0.018687039613723755 0.037470750510692596 0.17823351919651031
0.019008398056030273 0.037495873868465424 0.1783515065908432
0.019343074411153793 0.03756735101342201 0.1784706860780716
0.019679676741361618 0.03759311884641647 0.17858844995498657
0.019985146820545197 0.03763283044099808 0.17870710790157318
0.02035282924771309 0.03768664970993996 0.17894740402698517
0.020660176873207092 0.0377226397395134 0.1791880875825882
0.02102598547935486 0.03778018057346344 0.17930635809898376
0.02136318013072014 0.037832699716091156 0.17954708635807037
0.021701015532016754 0.03786998987197876 0.17978733777999878
0.022036977112293243 0.03791099414229393 0.17990556359291077
0.0223722942173481 0.03796723484992981 0.18002428114414215
0.022710129618644714 0.03800452500581741 0.18026453256607056
0.02304796874523163 0.03804181143641472 0.18050476908683777
0.02341313287615776 0.03811458498239517 0.18062353134155273
0.02375160902738571 0.03813663497567177 0.18086330592632294
0.024088803678750992 0.03818915784358978 0.18110401928424835
0.02442476525902748 0.03823016583919525 0.18122225999832153
0.02479057013988495 0.0382876992225647 0.1813405454158783
0.025127124041318893 0.03835546225309372 0.18158173561096191
0.02546495944261551 0.038392748683691025 0.18182198703289032
0.025833286345005035 0.038431331515312195 0.1820618063211441
0.026169244199991226 0.038472339510917664 0.1821800321340561
0.026535693556070328 0.0385146364569664 0.18229784071445465
0.02687165141105652 0.03855564445257187 0.18241608142852783
0.027209486812353134 0.038592930883169174 0.18265633285045624
0.027544166892766953 0.03866440802812576 0.18277551233768463
0.02791249006986618 0.03870299085974693 0.18301533162593842
0.028278935700654984 0.03874529153108597 0.18313314020633698
0.028616774827241898 0.03878258168697357 0.18337339162826538
0.028983816504478455 0.03885163366794586 0.18361414968967438
0.029350262135267258 0.038893938064575195 0.18373195827007294
0.029717303812503815 0.038962990045547485 0.18397273123264313
0.03005513921380043 0.03900028020143509 0.18421298265457153
0.030423466116189957 0.03903885930776596 0.18445280194282532
0.030759423971176147 0.03907986730337143 0.1845710277557373
0.031156953424215317 0.039150215685367584 0.18481136858463287
0.03152340278029442 0.03919252008199692 0.18492917716503143
0.031861238181591034 0.03922980651259422 0.18516942858695984
0.03222827985882759 0.03929886221885681 0.18541018664836884
0.032594725489616394 0.03934116289019585 0.1855279952287674
0.03296305239200592 0.03937974572181702 0.18576781451702118
0.03332821652293205 0.03945251926779747 0.18588657677173615
0.03369653970003128 0.03949110209941864 0.18612638115882874
0.03406486287713051 0.03952968493103981 0.18636620044708252
0.03446051850914955 0.03960375487804413 0.18648453056812286
0.03479835391044617 0.039641041308641434 0.18672478199005127
0.035195883363485336 0.03971139341592789 0.18696512281894684
0.035564206540584564 0.03974997252225876 0.18720494210720062
0.035961735993623734 0.03982032835483551 0.187445268034935
-0.04497436434030533 0.029508238658308983 0.1467825025320053
-0.04464048519730568 0.029455602169036865 0.14647038280963898
-0.044308777898550034 0.029393304139375687 0.1459747701883316
-0.04403562471270561 0.029393445700407028 0.14584840834140778
-0.04379201680421829 0.029390431940555573 0.14578349888324738
-0.04354841262102127 0.029387418180704117 0.14571858942508698
-0.04331975430250168 0.029397133737802505 0.1457153707742691
-0.04307615011930466 0.02939411997795105 0.1456504464149475
-0.042847491800785065 0.02940383553504944 0.14564722776412964
-0.04258864372968674 0.029401469975709915 0.14558210968971252
-0.04239017516374588 0.029423268511891365 0.1456407904624939
-0.042175523936748505 0.029443854466080666 0.14576026797294617
-0.042006950825452805 0.029491111636161804 0.1459423452615738
-0.04182283580303192 0.029552394524216652 0.14618569612503052
-0.04163743928074837 0.02958320453763008 0.14642807841300964
-0.04146886616945267 0.02963046357035637 0.14661017060279846
-0.04128504544496536 0.02967836894094944 0.14679202437400818
-0.041085343807935715 0.029711684212088585 0.14697319269180298
-0.04090152680873871 0.029759589582681656 0.1471550613641739
-0.04071706533432007 0.029792258515954018 0.1473364531993866
-0.040517065674066544 0.02983895316720009 0.1475791037082672
-0.04036343842744827 0.02989894151687622 0.14782287180423737
-0.040178682655096054 0.02994498796761036 0.1480657458305359
-0.040023818612098694 0.030016493052244186 0.14843200147151947
-0.03986801952123642 0.03008614107966423 0.14885926246643066
-0.039728399366140366 0.030156997963786125 0.14922574162483215
-0.03958848491311073 0.030241234228014946 0.14965368807315826
-0.03943268209695816 0.03031088225543499 0.15008094906806946
-0.039263516664505005 0.030384894460439682 0.1503859907388687
-0.039078760892152786 0.03043094091117382 0.15062884986400604
-0.03889400139451027 0.03047698736190796 0.15087172389030457
-0.03867999464273453 0.03051280975341797 0.15099167823791504
-0.038450099527835846 0.03053404577076435 0.1511109471321106
-0.03822208195924759 0.03055899776518345 0.15110819041728973
-0.03454453870654106 0.030375368893146515 0.1492137461900711
-0.03425797075033188 0.03033788502216339 0.1488417387008667
-0.03395615890622139 0.03030104748904705 0.14846952259540558
-0.03369790315628052 0.030271925032138824 0.14828144013881683
-0.03343935310840607 0.030256181955337524 0.1481548249721527
-0.03318144008517265 0.030255675315856934 0.1480286866426468
-0.03292195126414299 0.0302380733191967 0.14796309173107147
-0.03267928585410118 0.030236918479204178 0.14783716201782227
-0.03245062753558159 0.030246634036302567 0.1478339433670044
-0.03220672532916069 0.030256997793912888 0.1478305160999298
-0.031993310898542404 0.030266065150499344 0.14782750606536865
-0.03176341578364372 0.030287301167845726 0.1479467749595642
-0.031550344079732895 0.03032498247921467 0.14800572395324707
-0.03133445978164673 0.030357088893651962 0.14824768900871277
-0.03113603964447975 0.030420877039432526 0.14842981100082397
-0.030951283872127533 0.030466923490166664 0.1486726701259613
-0.03075098618865013 0.03052699565887451 0.14897680282592773
-0.030550047755241394 0.03057183139026165 0.14928047358989716
-0.030349750071763992 0.030631903558969498 0.1495846062898636
-0.03015068918466568 0.030680455267429352 0.1497662514448166
-0.02995133027434349 0.030742386355996132 0.1500093787908554
-0.029720496386289597 0.030761761590838432 0.15018965303897858
-0.029506191611289978 0.030810963362455368 0.15037107467651367
-0.029307130724191666 0.03085951693356037 0.15055273473262787
-0.029092181473970413 0.03089348040521145 0.15073369443416595
-0.028877876698970795 0.030942682176828384 0.15091511607170105
-0.02866293117403984 0.03097664564847946 0.15109607577323914
-0.02843273989856243 0.03101125732064247 0.1512768268585205
-0.028204426169395447 0.031049588695168495 0.15133556723594666
-0.027982152998447418 0.031070498749613762 0.15145492553710938
-0.027752261608839035 0.031091732904314995 0.15157419443130493
-0.027515683323144913 0.031115150079131126 0.15163235366344452
-0.027286430820822716 0.031151622533798218 0.15175208449363708
-0.02706509828567505 0.031174391508102417 0.1518104523420334
-0.026835843920707703 0.03121086210012436 0.15193018317222595
-0.026598328724503517 0.031232420355081558 0.15204934775829315
-0.026376698166131973 0.031268566846847534 0.15216919779777527
-0.026147445663809776 0.031305037438869476 0.15228892862796783
-0.02591661363840103 0.031324416399002075 0.152469202876091
-0.02568003535270691 0.03134783357381821 0.1525273472070694
-0.025451723486185074 0.03138616308569908 0.15258608758449554
-0.025222469121217728 0.031422633677721024 0.1527058333158493
-0.02497856691479683 0.031432997435331345 0.15270239114761353
-0.024748673662543297 0.03145423159003258 0.15282166004180908
-0.024503536522388458 0.03147611394524574 0.15294070541858673
-0.02426789700984955 0.03150139003992081 0.1529378592967987
-0.024022117257118225 0.03150803595781326 0.15305642783641815
-0.023794742301106453 0.03154822438955307 0.1530541628599167
-0.02354896441102028 0.031554870307445526 0.15317273139953613
-0.023311447352170944 0.031576432287693024 0.15329189598560333
-0.023084072396159172 0.03161662071943283 0.15328961610794067
-0.022847197949886322 0.03165341168642044 0.15340925753116608
-0.022609680891036987 0.03167497366666794 0.15352840721607208
-0.022372808307409286 0.03171176463365555 0.15364804863929749
-0.022128906100988388 0.03172212839126587 0.1536446064710617
-0.021883126348257065 0.031728774309158325 0.15376318991184235
-0.021639224141836166 0.031739138066768646 0.15375974774360657
-0.021404225379228592 0.03177965432405472 0.15375736355781555
-0.021158447489142418 0.031786300241947174 0.1538759469985962
-0.020916422829031944 0.03180038183927536 0.1537504941225052
-0.020663021132349968 0.031807348132133484 0.15386897325515747
-0.020427383482456207 0.031832627952098846 0.15386611223220825
-0.02018348127603531 0.03184299170970917 0.15386268496513367
-0.019942793995141983 0.03187994658946991 0.1539822518825531
-0.01969701610505581 0.031886592507362366 0.15410083532333374
-0.019457565620541573 0.03191203251481056 0.15409792959690094
-0.01921623945236206 0.031933754682540894 0.15421703457832336
-0.018972977995872498 0.031959354877471924 0.1542140692472458
-0.01873229257762432 0.031996309757232666 0.15433365106582642
-0.01849096640944481 0.0320180281996727 0.15445275604724884
-0.018246470019221306 0.032055146992206573 0.1545722782611847
-0.018000692129135132 0.03206179291009903 0.15469084680080414
-0.01775619387626648 0.032098911702632904 0.15481036901474
-0.017516745254397392 0.0321243517100811 0.15480747818946838
-0.01727224886417389 0.032161470502614975 0.15492700040340424
-0.01702265813946724 0.032168276607990265 0.1550455093383789
-0.01678003929555416 0.032209113240242004 0.15504303574562073
-0.016534902155399323 0.03223099559545517 0.15516208112239838
-0.016285311430692673 0.03223780542612076 0.15528060495853424
-0.016042690724134445 0.0322786420583725 0.15527811646461487
-0.015795648097991943 0.03230060636997223 0.15539714694023132
-0.015549246221780777 0.03233780711889267 0.1555166393518448
-0.015300968661904335 0.03237128630280495 0.15575814247131348
-0.015053925104439259 0.03239325061440468 0.15587717294692993
-0.014808805659413338 0.03246092051267624 0.1559976190328598
-0.014559857547283173 0.03248296678066254 0.15611661970615387
-0.014309672638773918 0.03251653164625168 0.15635809302330017
-0.014060130342841148 0.03256532922387123 0.15660005807876587
-0.013812463730573654 0.03261784464120865 0.15671999752521515
-0.013561299070715904 0.032655246555805206 0.15683943033218384
-0.013307973742485046 0.03270041197538376 0.15720336139202118
-0.01305585540831089 0.0327378511428833 0.15732277929782867
-0.012802502140402794 0.032786816358566284 0.1575646847486496
-0.012550071813166142 0.03283953666687012 0.1576845645904541
-0.012294409796595573 0.032873328775167465 0.15792597830295563
-0.01204031240195036 0.03292611986398697 0.15804582834243774
-0.011783788911998272 0.0329904779791832 0.1582881510257721
-0.011526147834956646 0.03303962200880051 0.15852999687194824
-0.011267389170825481 0.0330735519528389 0.158771350979805
-0.011008007451891899 0.033138029277324677 0.15901364386081696
-0.010750172659754753 0.03317571431398392 0.1591329723596573
-0.010488243773579597 0.03322504460811615 0.15937475860118866
-0.010228503495454788 0.03326281160116196 0.1594940572977066
-0.009965622797608376 0.033312175422906876 0.15973582863807678
-0.009704005904495716 0.03334622457623482 0.15997715294361115
-0.009439218789339066 0.0333956703543663 0.16021889448165894
-0.00917630922049284 0.03344883769750595 0.1603386253118515
-0.008910258300602436 0.03351359814405441 0.1605808138847351
-0.008639784529805183 0.033559493720531464 0.16094450652599335
-0.008371186442673206 0.03360909968614578 0.16118620336055756
-0.008100060746073723 0.03368934243917465 0.1614287793636322
-0.00782765168696642 0.0337391160428524 0.16167041659355164
-0.0075540076941251755 0.0338004045188427 0.1620345264673233
-0.007278429344296455 0.03386557474732399 0.16227658092975616
-0.007006661966443062 0.03393058106303215 0.1625186949968338
-0.006728565786033869 0.03397679701447487 0.16288228332996368
-0.006452346220612526 0.034026727080345154 0.16312386095523834
-0.006173598114401102 0.03410729765892029 0.16336634755134583
-0.005893567577004433 0.034157391637563705 0.1636078655719757
-0.005616112612187862 0.03421884402632713 0.1639719307422638
-0.00533608254045248 0.03426893800497055 0.16421346366405487
-0.005056051537394524 0.03431903198361397 0.16445498168468475
-0.004772210493683815 0.03436928987503052 0.16469645500183105
-0.004490886814892292 0.03443849831819534 0.16481639444828033
-0.004207044839859009 0.03448875993490219 0.16505786776542664
-0.003930184058845043 0.03452345356345177 0.1652989685535431
-0.0036482196301221848 0.03457742929458618 0.16541843116283417
-0.0033625010401010513 0.03462396562099457 0.1657819151878357
-0.003079894930124283 0.03466270491480827 0.16590090095996857
-0.0027979305014014244 0.03471668064594269 0.16602036356925964
-0.002515324391424656 0.034755416214466095 0.1661393642425537
-0.0022314824163913727 0.034805674105882645 0.1663808375597
-0.0019488763064146042 0.03484441339969635 0.16649982333183289
-0.00166375283151865 0.03486419469118118 0.16674034297466278
-0.0013887686654925346 0.03490260988473892 0.166859433054924
-0.001105520874261856 0.03492611274123192 0.16697795689105988
-0.0008247913792729378 0.03496856987476349 0.16697493195533752
-0.0005491664633154869 0.03499174863100052 0.16709354519844055
-0.0002754172310233116 0.035018641501665115 0.16709016263484955
-7.366761565208435e-06 0.034999504685401917 0.1670854538679123
0.00025752466171979904 0.035014558583498 0.16695968806743622
0.0005090953782200813 0.034983254969120026 0.16683271527290344
0.0007676472887396812 0.034967511892318726 0.16670610010623932
0.0010236818343400955 0.034970723092556 0.16645795106887817
0.0012904498726129532 0.03498205542564392 0.16645419597625732
0.001549001783132553 0.03496631234884262 0.1663275957107544
0.0018334845080971718 0.03500133380293846 0.1665685921907425
0.0021325694397091866 0.03505223989486694 0.1668098419904709
0.0024297786876559258 0.03510686010122299 0.16692909598350525
0.002746577374637127 0.035181447863578796 0.16741511225700378
0.003059624694287777 0.03526347503066063 0.16765710711479187
0.0033745476976037025 0.0353417843580246 0.168021097779274
0.003698970191180706 0.03541669249534607 0.16850700974464417
0.004020874388515949 0.03551056236028671 0.16887137293815613
0.004343419335782528 0.03558919578790665 0.16923527419567108
0.004652003757655621 0.03563670441508293 0.16959844529628754
0.004972673021256924 0.03571905195713043 0.16984032094478607
0.005293983034789562 0.03578616678714752 0.1700817346572876
0.00560068991035223 0.03583739325404167 0.17032288014888763
0.005909274332225323 0.03588490188121796 0.1706860512495041
0.006215981207787991 0.035936132073402405 0.17092719674110413
0.006537291221320629 0.036003246903419495 0.17116861045360565
0.006842122413218021 0.03605819121003151 0.17128774523735046
0.007164073176681995 0.03611006587743759 0.1715286821126938
0.007470780052244663 0.03616129606962204 0.17176984250545502
0.00777748879045248 0.03621252626180649 0.17201098799705505
0.00810008030384779 0.03624916449189186 0.17225144803524017
0.008404911495745182 0.036304108798503876 0.17237058281898499
0.00871038343757391 0.03634382039308548 0.1724892556667328
0.009017731063067913 0.03637981414794922 0.17272992432117462
0.009339683689177036 0.036431685090065 0.17297086119651794
0.009628034196794033 0.03647446632385254 0.17296773195266724
0.009949984960258007 0.03652634471654892 0.17320866882801056
0.010255456902086735 0.036566052585840225 0.17332734167575836
0.01691211760044098 0.03742564097046852 0.17679360508918762
0.0172467939555645 0.03749711811542511 0.1769127994775772
0.01756814867258072 0.03752224147319794 0.1770307719707489
0.01789074018597603 0.03755887970328331 0.17727123200893402
0.018226061016321182 0.03761512041091919 0.1773899495601654
0.018546774983406067 0.037655480206012726 0.1775083988904953
0.01887001097202301 0.03767688199877739 0.17774838209152222
0.01917548105120659 0.037716589868068695 0.17786704003810883
0.01954316347837448 0.03777041286230087 0.1781073361635208
0.019846759736537933 0.03781383857131004 0.1781039983034134
0.020183954387903214 0.03786636143922806 0.1783447116613388
0.020519915968179703 0.03790736943483353 0.178462952375412
0.020857110619544983 0.03795988857746124 0.1787036806344986
0.021194305270910263 0.038012415170669556 0.178944393992424
0.021530263125896454 0.038053419440984726 0.1790626347064972
0.021866224706172943 0.038094423711299896 0.17918086051940918
0.022203419357538223 0.03814695030450821 0.1794215887784958
0.02254125475883484 0.038184236735105515 0.1796618402004242
0.02290893718600273 0.038238056004047394 0.17990213632583618
0.02324489876627922 0.038279060274362564 0.18002036213874817
0.0235820934176445 0.03833158314228058 0.18026109039783478
0.023919928818941116 0.03836887329816818 0.18050134181976318
0.02428509294986725 0.03844164311885834 0.18062008917331696
0.024652134627103806 0.038510702550411224 0.18086086213588715
0.02498997375369072 0.03854798898100853 0.18110109865665436
0.025327809154987335 0.038585275411605835 0.18134135007858276
0.025663767009973526 0.038626283407211304 0.18145959079265594
0.026028934866189957 0.03869905322790146 0.18157833814620972
0.026397258043289185 0.03873763978481293 0.1818181574344635
0.0267350934445858 0.038774922490119934 0.1820584088563919
0.027100257575511932 0.038847699761390686 0.18217717111110687
0.027438096702098846 0.03888498619198799 0.18241740763187408
0.02780454233288765 0.038927286863327026 0.18253521621227264
0.028111889958381653 0.038963280618190765 0.18277589976787567
0.02847893163561821 0.039032332599163055 0.18301665782928467
0.02887774631381035 0.03907221183180809 0.18325604498386383
0.02924291044473648 0.039144985377788544 0.1833748072385788
0.029580745846033096 0.03918227553367615 0.1836150586605072
0.029947787523269653 0.03925132751464844 0.1838558167219162
0.03031611070036888 0.039289914071559906 0.18409563601016998
0.030681278556585312 0.03936268389225006 0.18421439826488495
0.03104960173368454 0.03940127044916153 0.18445421755313873
0.031387437134981155 0.039438553154468536 0.18469445407390594
0.0317830890417099 0.03951262682676315 0.1848127841949463
0.032151415944099426 0.039551205933094025 0.18505260348320007
0.03248925134539604 0.03958849608898163 0.18529285490512848
0.03288678079843521 0.03965884447097778 0.18553318083286285
0.033253226429224014 0.03970114886760712 0.1856509894132614
0.03362026810646057 0.03977020084857941 0.1858917623758316
0.03398671746253967 0.03981250524520874 0.18600957095623016
0.034356918185949326 0.03984736651182175 0.18637140095233917
0.03475257009267807 0.039921436458826065 0.18648971617221832
0.03512148931622505 0.03998677432537079 0.18685249984264374
0.03551842272281647 0.04003037139773369 0.18696987628936768
-0.04477541521191597 0.029615797102451324 0.14604979753494263
-0.04447236657142639 0.029590478166937828 0.14580005407333374
-0.044168975204229355 0.029536545276641846 0.14548836648464203
-0.043926309794187546 0.029535390436649323 0.14536245167255402
-0.04366745799779892 0.02953302301466465 0.1452973186969757
-0.04343879967927933 0.029542740434408188 0.14529410004615784
-0.043210141360759735 0.029552455991506577 0.14529088139533997
-0.04296717792749405 0.02956467866897583 0.14522643387317657
-0.042722634971141815 0.029559805989265442 0.1452225297689438
-0.042479030787944794 0.029556792229413986 0.1451576203107834
-0.04228056222200394 0.029578590765595436 0.14521630108356476
-0.04209704324603081 0.02961311861872673 0.14533668756484985
-0.0419132225215435 0.0296610239893198 0.14551855623722076
-0.04174371063709259 0.029706422239542007 0.145761638879776
-0.04154307022690773 0.02973788045346737 0.1460038125514984
-0.041359253227710724 0.02978578582406044 0.14618568122386932
-0.041175730526447296 0.029820313677191734 0.14630606770515442
-0.04099191352725029 0.029868219047784805 0.14648792147636414
-0.040793150663375854 0.029903393238782883 0.14660808444023132
-0.04059344530105591 0.029936710372567177 0.14678926765918732
-0.04039468243718147 0.029971886426210403 0.1469094306230545
-0.04022423177957535 0.030015425756573677 0.14721351861953735
-0.04004041105508804 0.030063331127166748 0.14739538729190826
-0.03987060487270355 0.03012210689485073 0.14769995212554932
-0.03970079496502876 0.030180884525179863 0.14800451695919037
-0.039531923830509186 0.03024151921272278 0.14824806153774261
-0.03934716805815697 0.030287565663456917 0.14849093556404114
-0.03917735815048218 0.0303463414311409 0.1487955003976822
-0.03897829353809357 0.030394895002245903 0.1489771455526352
-0.03877859190106392 0.030428212136030197 0.14915831387043
-0.038579829037189484 0.030463386327028275 0.14927849173545837
-0.038335926830768585 0.030473750084638596 0.1492750495672226
-0.03810726851224899 0.030483467504382133 0.14927183091640472
-0.037863366305828094 0.030493831261992455 0.14926840364933014
-0.0376347079873085 0.030503546819090843 0.14926518499851227
-0.03739016130566597 0.030498674139380455 0.1492612659931183
-0.037147197872400284 0.03051089681684971 0.1491968333721161
-0.036659691482782364 0.030518246814608574 0.1491284817457199
-0.03643009439110756 0.03052610345184803 0.14918626844882965
-0.03618713095784187 0.030538326129317284 0.14912182092666626
-0.03595847263932228 0.030548041686415672 0.1491186022758484
-0.03571457043290138 0.030558405444025993 0.1491151750087738
-0.03547096624970436 0.030555391684174538 0.1490502506494522
-0.03521305322647095 0.030554885044693947 0.14892412722110748
-0.03493891656398773 0.030511176213622093 0.14873534440994263
-0.03466729447245598 0.030486419796943665 0.14842502772808075
-0.034379489719867706 0.030460452660918236 0.14817550778388977
-0.034121233969926834 0.03043133206665516 0.14798742532730103
-0.03384743630886078 0.03041623719036579 0.1478606015443802
-0.033604130148887634 0.03039984591305256 0.14773420989513397
-0.033361464738845825 0.030398691073060036 0.14760828018188477
-0.03311849758028984 0.03041091375052929 0.14754384756088257
-0.03287395462393761 0.0304060410708189 0.1475399285554886
-0.03263099119067192 0.030418263748288155 0.1474754959344864
-0.032402630895376205 0.030414601787924767 0.1474107950925827
-0.03215872868895531 0.030424965545535088 0.14740735292434692
-0.031945016235113144 0.03044741041958332 0.14746583998203278
-0.03171512484550476 0.030468646436929703 0.14758509397506714
-0.031500473618507385 0.030489232391119003 0.1477045714855194
-0.031302351504564285 0.03053964488208294 0.147825226187706
-0.031087402254343033 0.030573608353734016 0.14800618588924408
-0.030886463820934296 0.030618444085121155 0.1483098417520523
-0.03068804368376732 0.030682234093546867 0.1484919637441635
-0.030488044023513794 0.030728928744792938 0.14873461425304413
-0.030287403613328934 0.03076038509607315 0.14897678792476654
-0.03007373958826065 0.030824823305010796 0.14915870130062103
-0.029874034225940704 0.03085814043879509 0.14933986961841583
-0.029659729450941086 0.030907340347766876 0.14952130615711212
-0.029429834336042404 0.03092857450246811 0.14964057505130768
-0.029230773448944092 0.030977128073573112 0.14982222020626068
-0.029015827924013138 0.03101109340786934 0.15000317990779877
-0.02880152128636837 0.031060293316841125 0.15018461644649506
-0.028571628034114838 0.03108152747154236 0.1503038853406906
-0.02834143675863743 0.031116141006350517 0.1504846215248108
-0.02812836691737175 0.03115382231771946 0.15054357051849365
-0.027897534891963005 0.03117319755256176 0.15072384476661682
-0.027676843106746674 0.031211204826831818 0.15078268945217133
-0.027447588741779327 0.03124767541885376 0.1509024202823639
-0.02721705473959446 0.03125367313623428 0.15102121233940125
-0.02699606493115425 0.03130505979061127 0.15114153921604156
-0.02676617167890072 0.0313262939453125 0.15126080811023712
-0.0265372171998024 0.03134938329458237 0.15131905674934387
-0.026315288618206978 0.03139891102910042 0.1515003889799118
-0.02608603611588478 0.03143538162112236 0.15162011981010437
-0.02585614286363125 0.03145661577582359 0.15173938870429993
-0.025626249611377716 0.031477849930524826 0.1518586426973343
-0.02539699524641037 0.03151432424783707 0.15197838842868805
-0.025167744606733322 0.03155079483985901 0.15209811925888062
-0.024938788264989853 0.031573884189128876 0.15215638279914856
-0.02470097690820694 0.03160881996154785 0.15233702957630157
-0.02447202056646347 0.031631916761398315 0.15239527821540833
-0.024235442280769348 0.03165533393621445 0.1524534374475479
-0.023997927084565163 0.031676892191171646 0.15257258713245392
-0.023762289434671402 0.03170216828584671 0.1525697410106659
-0.023524772375822067 0.03172372654080391 0.1526888906955719
-0.02329551987349987 0.03176019713282585 0.15280863642692566
-0.023049741983413696 0.03176684305071831 0.1529272049665451
-0.022821130231022835 0.03181855008006096 0.15304742753505707
-0.02258361503481865 0.03184010833501816 0.15316657721996307
-0.02234797552227974 0.03186538815498352 0.15316373109817505
-0.022116847336292267 0.0318981409072876 0.15340547263622284
-0.021865323185920715 0.031908825039863586 0.1534019410610199
-0.021637946367263794 0.031949013471603394 0.15339966118335724
-0.02139216661453247 0.03195565938949585 0.15351824462413788
-0.02115652896463871 0.03198093920946121 0.15351538360118866
-0.02090500481426716 0.0319916233420372 0.15351185202598572
-0.020659225061535835 0.03199826925992966 0.15363042056560516
-0.02042422816157341 0.03203878551721573 0.15362805128097534
-0.02018032595515251 0.03204914927482605 0.15362460911273956
-0.01993454620242119 0.032055795192718506 0.1537431925535202
-0.019695738330483437 0.03209646791219711 0.1537407487630844
-0.01945822313427925 0.03211802616715431 0.1538599133491516
-0.019217535853385925 0.03215498477220535 0.15397948026657104
-0.018976209685206413 0.032176703214645386 0.15409860014915466
-0.018731072545051575 0.03219858556985855 0.1542176455259323
-0.018494198098778725 0.03223538398742676 0.15433727204799652
-0.018249060958623886 0.03225726634263992 0.15445633232593536
-0.01800644025206566 0.03229810297489166 0.154453843832016
-0.017765114083886147 0.032319821417331696 0.15457294881343842
-0.017520617693662643 0.03235694020986557 0.15469247102737427
-0.01727929152548313 0.0323786586523056 0.1548115760087967
-0.01702970080077648 0.03238546848297119 0.15493009984493256
-0.01678520441055298 0.032422587275505066 0.1550496220588684
-0.0165425855666399 0.032463423907756805 0.15504713356494904
-0.016294872388243675 0.03247395157814026 0.15504364669322968
-0.016049735248088837 0.032495833933353424 0.15516269207000732
-0.01580333337187767 0.032533030956983566 0.1552821844816208
-0.015558836050331593 0.03257014974951744 0.15540172159671783
-0.015311792492866516 0.03259211406111717 0.1555207371711731
-0.015061609447002411 0.032625675201416016 0.1557622253894806
-0.014815207570791245 0.032662875950336456 0.15588171780109406
-0.014567569829523563 0.03271159529685974 0.15612369775772095
-0.014321809634566307 0.03276403248310089 0.15624366700649261
-0.014070672914385796 0.03279763460159302 0.15648514032363892
-0.01382205355912447 0.03285019099712372 0.1566050797700882
-0.013571558520197868 0.032899029552936554 0.1568470150232315
-0.01332039199769497 0.03293643146753311 0.1569664478302002
-0.013067991472780704 0.03298535197973251 0.1572083681821823
-0.012815634720027447 0.03302280604839325 0.1573277711868286
-0.01256156712770462 0.03307180106639862 0.15756967663764954
-0.01230614259839058 0.03310558199882507 0.15781107544898987
-0.012050407007336617 0.03315464407205582 0.1580529510974884
-0.011796236038208008 0.033222705125808716 0.15817326307296753
-0.011538594961166382 0.033271849155426025 0.15841510891914368
-0.011280477978289127 0.03332100808620453 0.15865693986415863
-0.011020766571164131 0.0333549790084362 0.15889829397201538
-0.010762620717287064 0.033407941460609436 0.15901808440685272
-0.010502908378839493 0.03344190865755081 0.15925943851470947
-0.010241933166980743 0.03349119424819946 0.15950122475624084
-0.009980928152799606 0.033544279634952545 0.1596209853887558
-0.009717406705021858 0.033578407019376755 0.15986227989196777
-0.009454525075852871 0.033627770841121674 0.16010405123233795
-0.009190350770950317 0.0336962565779686 0.16022422909736633
-0.008921781554818153 0.033742066472768784 0.16058795154094696
-0.008655089884996414 0.033791594207286835 0.16082966327667236
-0.008386492729187012 0.033841200172901154 0.16107136011123657
-0.008113489486277103 0.03391772881150246 0.16143594682216644
-0.00784359872341156 0.03398645669221878 0.16155605018138885
-0.00757312448695302 0.034032344818115234 0.1619197428226471
-0.007298187352716923 0.034112751483917236 0.16216227412223816
-0.00702009117230773 0.034158967435359955 0.16252586245536804
-0.006748323794454336 0.034223973751068115 0.16276797652244568
-0.006472104229032993 0.0342739075422287 0.16300955414772034
-0.006189545150846243 0.03435463458299637 0.16325196623802185
-0.0059133255854249 0.03440456837415695 0.1634935587644577
-0.005633295048028231 0.03445466607809067 0.16373507678508759
-0.005357717163860798 0.03451983258128166 0.16397713124752045
-0.005073875188827515 0.03457009047269821 0.16421860456466675
-0.004793845117092133 0.03462018445134163 0.16446013748645782
-0.004510003142058849 0.03467044234275818 0.16470161080360413
-0.004233784042298794 0.03472037613391876 0.16494318842887878
-0.0039499420672655106 0.03477063030004501 0.16518466174602509
-0.003667977638542652 0.03482460603117943 0.16530412435531616
-0.0033834949135780334 0.03485962748527527 0.16554512083530426
-0.0031091514974832535 0.03491327539086342 0.1656646877527237
-0.0028170468285679817 0.034948620945215225 0.16590557992458344
-0.0025427043437957764 0.035002268850803375 0.16602514684200287
-0.0022575799375772476 0.035022057592868805 0.16626566648483276
-0.001974973827600479 0.03506079316139221 0.16638466715812683
-0.0016930093988776207 0.03511476516723633 0.1665041297674179
-0.0014104032889008522 0.03515350818634033 0.16662311553955078
-0.0011277971789240837 0.03519224375486374 0.16674210131168365
-0.0008445493876934052 0.03521574288606644 0.16686061024665833
-0.0005777813494205475 0.035227082669734955 0.16685685515403748
-0.00030339136719703674 0.03523874282836914 0.16685299575328827
-3.662332892417908e-05 0.03525007516145706 0.16684924066066742
0.00022128690034151077 0.03524956852197647 0.1667231023311615
0.000489337369799614 0.03523043170571327 0.16671839356422424
0.0007402673363685608 0.035214364528656006 0.16659189760684967
0.0010058004409074783 0.03521417826414108 0.1664656549692154
0.0012706918641924858 0.035229235887527466 0.16633988916873932
0.0015393365174531937 0.03523685038089752 0.1664581447839737
0.0018207067623734474 0.03526407107710838 0.16645464301109314
0.002103312872350216 0.03530281037092209 0.166573628783226
0.0024042753502726555 0.03534999489784241 0.16693690419197083
0.0027173208072781563 0.03543201833963394 0.1671788990497589
0.003032245673239231 0.03551032766699791 0.16754288971424103
0.0033471686765551567 0.03558863699436188 0.16790689527988434
0.0036709485575556755 0.03567878529429436 0.16839328408241272
0.003994136117398739 0.035742178559303284 0.16875669360160828
0.004301437176764011 0.035820163786411285 0.16912080347537994
0.0046221064403653145 0.035902511328458786 0.16936269402503967
0.004945292137563229 0.03596590459346771 0.16972611844539642
0.005266602151095867 0.0360330194234848 0.16996753215789795
0.0055587077513337135 0.03606836497783661 0.1702084094285965
0.005863538943231106 0.036123309284448624 0.1703275591135025
0.0061860838904976845 0.03620193898677826 0.17069144546985626
0.0065080346539616585 0.03625381737947464 0.17093238234519958
0.006800140254199505 0.03628916293382645 0.17117327451705933
0.007120213471353054 0.036344751715660095 0.17129220068454742
0.007426922209560871 0.03639598190784454 0.17153336107730865
0.007734269835054874 0.03643197566270828 0.1717740297317505
0.008039101026952267 0.0364869199693203 0.1718931794166565
0.008344572968780994 0.0365266278386116 0.1720118373632431
0.008634801022708416 0.036565691232681274 0.17213071882724762
0.008942791260778904 0.036586448550224304 0.17237092554569244
0.009248263202607632 0.03662616014480591 0.17248958349227905
0.009568336419761181 0.03668174892663956 0.17260850965976715
0.009858564473688602 0.03672081232070923 0.17272739112377167
0.010165913961827755 0.03675680607557297 0.1729680746793747
0.010485989041626453 0.036812398582696915 0.1730870008468628
0.010793336667120457 0.036848388612270355 0.17332766950130463
0.011113411746919155 0.0369039848446846 0.17344659566879272
0.01579386740922928 0.037461891770362854 0.175590381026268
0.016129184514284134 0.037518132477998734 0.1757090836763382
0.016436532139778137 0.037554122507572174 0.17594976723194122
0.01677185297012329 0.03761036694049835 0.1760684847831726
0.0170944444835186 0.037647005170583725 0.17630894482135773
0.017429761588573456 0.037703245878219604 0.17642764747142792
0.017752356827259064 0.037739887833595276 0.17666810750961304
0.018058467656373978 0.03776436299085617 0.17678630352020264
0.018408387899398804 0.03783648461103439 0.17690527439117432
0.018716376274824142 0.03785724192857742 0.17714548110961914
0.019066940993070602 0.037914130836725235 0.17726397514343262
0.019374288618564606 0.037950120866298676 0.17750465869903564
0.019710250198841095 0.037991128861904144 0.17762288451194763
0.020047444850206375 0.03804365172982216 0.17786361277103424
0.020383402705192566 0.03808465600013733 0.17798183858394623
0.02071872353553772 0.03814090043306351 0.1781005561351776
0.021055918186903 0.03819342330098152 0.17834128439426422
0.02139311283826828 0.038245946168899536 0.17858199775218964
0.021730948239564896 0.03828323632478714 0.17882224917411804
0.022096753120422363 0.038340769708156586 0.1789405196905136
0.022404104471206665 0.038376763463020325 0.17918120324611664
0.022769268602132797 0.03844953700900078 0.1792999655008316
0.023107104003429413 0.038486823439598083 0.17954020202159882
0.023443657904863358 0.038554586470127106 0.17978140711784363
0.02381010726094246 0.03859688341617584 0.1798992156982422
0.024146661162376404 0.038664646446704865 0.1801404058933258
0.02451498433947563 0.038703225553035736 0.1803802251815796
0.02488202601671219 0.03877228498458862 0.18062099814414978
0.025219861418008804 0.03880957141518593 0.180861234664917
0.02555769681930542 0.038846857845783234 0.1811014860868454
0.02592286467552185 0.03891963139176369 0.18122023344039917
0.02625882253050804 0.03896063566207886 0.18133847415447235
0.02662714570760727 0.038999222218990326 0.18157829344272614
0.026994187384843826 0.039068274199962616 0.18181906640529633
0.02733202651143074 0.03910556435585022 0.18205930292606354
0.02766670286655426 0.03917704150080681 0.18217849731445312
0.028035026043653488 0.03921562433242798 0.1824183166027069
0.028370987623929977 0.03925662860274315 0.1825365424156189
0.02873990312218666 0.03932196646928787 0.1828993260860443
0.02913743257522583 0.039392318576574326 0.18313966691493988
0.02947339415550232 0.039433322846889496 0.18325789272785187
0.029872801154851913 0.039499957114458084 0.18362024426460266
0.030239246785640717 0.03954225778579712 0.18373805284500122
0.030606288462877274 0.03961131349205971 0.1839788258075714
0.0309746116399765 0.03964989632368088 0.1842186450958252
0.03134165331721306 0.039718952029943466 0.1844594031572342
0.031709980219602585 0.039757534861564636 0.18469922244548798
0.03207702189683914 0.039826590567827225 0.18493999540805817
0.03244534507393837 0.039865173399448395 0.18517979979515076
0.0328105092048645 0.03993794694542885 0.18529856204986572
0.03317883238196373 0.03997652977705002 0.1855383813381195
0.033547159284353256 0.04001511260867119 0.1857782006263733
0.033944688737392426 0.04008546471595764 0.18601854145526886
0.03430985286831856 0.0401582345366478 0.18613728880882263
0.034678176045417786 0.040196821093559265 0.18637710809707642
0.035075705498456955 0.04026716947555542 0.18661744892597198
0.035473234951496124 0.04033752158284187 0.18685778975486755
-0.04505853354930878 0.029872816056013107 0.14624521136283875
-0.04460601508617401 0.02972020022571087 0.14537853002548218
-0.04427371546626091 0.029684657230973244 0.14500588178634644
-0.0440310500562191 0.02968350239098072 0.14487996697425842
-0.04378650709986687 0.029678629711270332 0.14487604796886444
-0.04357309266924858 0.029687698930501938 0.14487305283546448
-0.04334443435072899 0.029697414487600327 0.1448698341846466
-0.043115776032209396 0.029707130044698715 0.14486660063266754
-0.0428718738257885 0.029717493802309036 0.14486317336559296
-0.04264415428042412 0.029729068279266357 0.14479894936084747
-0.0424005463719368 0.0297260545194149 0.14473403990268707
-0.04220208153128624 0.02974785305559635 0.14479272067546844
-0.04200267419219017 0.02976779267191887 0.14491242170333862
-0.04181791841983795 0.029813839122653008 0.14515528082847595
-0.04164934530854225 0.029861096292734146 0.14533735811710358
-0.041480474174022675 0.02992173098027706 0.14558091759681702
-0.04128076881170273 0.029955048114061356 0.145762100815773
-0.04108200594782829 0.029990224167704582 0.1458822637796402
-0.04089754447340965 0.030022893100976944 0.1460636556148529
-0.040682896971702576 0.030043479055166245 0.14618313312530518
-0.04049937427043915 0.03007800690829754 0.14630351960659027
-0.04030061140656471 0.030113182961940765 0.14642368257045746
-0.0401015467941761 0.03016173653304577 0.14660532772541046
-0.03991708904504776 0.03019440546631813 0.14678671956062317
-0.03971802815794945 0.030242959037423134 0.14696836471557617
-0.039532631635665894 0.030273769050836563 0.1472107619047165
-0.03933386504650116 0.03030894324183464 0.14733092486858368
-0.03915004804730415 0.03035684861242771 0.1475127935409546
-0.03895034268498421 0.030390165746212006 0.1476939618587494
-0.03875157982110977 0.030425341799855232 0.14781413972377777
-0.03850673884153366 0.03043384663760662 0.1478717029094696
-0.03829396516084671 0.030458150431513786 0.14786916971206665
-0.03806530684232712 0.030467867851257324 0.14786595106124878
-0.03783635050058365 0.03049096092581749 0.14792421460151672
-0.03759274631738663 0.030487947165966034 0.14785930514335632
-0.037379033863544464 0.030510392040014267 0.14791777729988098
-0.03713542968034744 0.03050737828016281 0.1478528529405594
-0.036891527473926544 0.030517742037773132 0.1478494256734848
-0.036647625267505646 0.030528105795383453 0.14784598350524902
-0.03643421083688736 0.03053717501461506 0.14784298837184906
-0.03619030863046646 0.03054753877222538 0.14783954620361328
-0.03596165031194687 0.03055725432932377 0.1478363275527954
-0.035732053220272064 0.030565110966563225 0.14789411425590515
-0.03550339490175247 0.030574828386306763 0.14789089560508728
-0.035259492695331573 0.030585192143917084 0.1478874683380127
-0.03501588851213455 0.030582178384065628 0.1478225439786911
-0.03475891798734665 0.03058352880179882 0.14763540029525757
-0.034514669328927994 0.030565278604626656 0.14757001399993896
-0.034272003918886185 0.030564123764634132 0.14744409918785095
-0.034013450145721436 0.030548380687832832 0.14731748402118683
-0.03377048671245575 0.030560603365302086 0.14725305140018463
-0.03354182839393616 0.030570318922400475 0.14724983274936676
-0.03329728543758392 0.030565446242690086 0.14724591374397278
-0.03305432200431824 0.03057766892015934 0.14718148112297058
-0.03282502293586731 0.03057214990258217 0.1471777856349945
-0.032582059502601624 0.030584372580051422 0.1471133530139923
-0.03235340118408203 0.03059408813714981 0.14711011946201324
-0.03213968873023987 0.030616533011198044 0.1471686065196991
-0.03189578652381897 0.030626896768808365 0.14716516435146332
-0.0316963791847229 0.030646836385130882 0.1472848653793335
-0.03146648779511452 0.030668070539832115 0.14740411937236786
-0.03126836195588112 0.03071848303079605 0.14752477407455444
-0.031053416430950165 0.030752448365092278 0.14770573377609253
-0.030854355543851852 0.03080100007355213 0.14788737893104553
-0.0306394062936306 0.030834965407848358 0.14806833863258362
-0.03044004738330841 0.030896896496415138 0.14831146597862244
-0.030240345746278763 0.030930211767554283 0.14849263429641724
-0.030026040971279144 0.03097941353917122 0.14867407083511353
-0.029810450971126556 0.030998140573501587 0.1488545536994934
-0.029596146196126938 0.031047342345118523 0.1490359902381897
-0.029382135719060898 0.031083164736628532 0.14915594458580017
-0.029168128967285156 0.03111898899078369 0.14927589893341064
-0.028953183442354202 0.03115295246243477 0.14945685863494873
-0.028723929077386856 0.03118942491710186 0.1495765894651413
-0.028508983552455902 0.031223388388752937 0.14975754916667938
-0.02827908843755722 0.03124462254345417 0.14987681806087494
-0.028065722435712814 0.03129568323493004 0.14999724924564362
-0.027836766093969345 0.031318776309490204 0.15005551278591156
-0.027614494785666466 0.03133969008922577 0.15017487108707428
-0.027392864227294922 0.03137583285570145 0.1502947211265564
-0.027163611724972725 0.03141230344772339 0.15041446685791016
-0.026933718472719193 0.03143353760242462 0.15053372085094452
-0.026711445301771164 0.03145445138216019 0.15065309405326843
-0.026490457355976105 0.03150583431124687 0.15077342092990875
-0.026260562241077423 0.031527068465948105 0.1508926898241043
-0.02603863552212715 0.031576596200466156 0.15107400715351105
-0.025817004963755608 0.031612738966941833 0.15119385719299316
-0.025587111711502075 0.031633973121643066 0.15131312608718872
-0.025356920436024666 0.031668588519096375 0.1514938771724701
-0.02512860670685768 0.03170691803097725 0.15155260264873505
-0.024897772818803787 0.03172629326581955 0.15173286199569702
-0.02466852217912674 0.03176276385784149 0.15185260772705078
-0.024439267814159393 0.031799234449863434 0.15197233855724335
-0.024210313335061073 0.0318223312497139 0.1520306020975113
-0.023972798138856888 0.0318438857793808 0.1521497666835785
-0.023744482547044754 0.03188221901655197 0.15220849215984344
-0.023506969213485718 0.03190377354621887 0.15232765674591064
-0.02327771484851837 0.03194024786353111 0.1524473875761032
-0.02304084226489067 0.03197704255580902 0.1525670289993286
-0.022811587899923325 0.03201351314783096 0.15268675982952118
-0.02257407270371914 0.03203507140278816 0.15280592441558838
-0.022344820201396942 0.032071541994810104 0.15292565524578094
-0.02209904044866562 0.03207818791270256 0.15304423868656158
-0.021864043548703194 0.032118700444698334 0.15304185450077057
-0.021626528352499008 0.03214026242494583 0.15316101908683777
-0.02138262614607811 0.03215062618255615 0.153157576918602
-0.021136846393346786 0.03215727210044861 0.15327616035938263
-0.02090184949338436 0.03219778090715408 0.1532737761735916
-0.020656071603298187 0.03220442682504654 0.15339234471321106
-0.020421072840690613 0.03224494308233261 0.15338997542858124
-0.02017529308795929 0.03225158900022507 0.15350854396820068
-0.01993965543806553 0.03227686136960983 0.15350569784641266
-0.019698329269886017 0.032298583537340164 0.15362480282783508
-0.019455067813396454 0.032324183732271194 0.1536218374967575
-0.019218193367123604 0.0323609784245491 0.15374146401882172
-0.018976867198944092 0.032382696866989136 0.15386058390140533
-0.018736179918050766 0.032419655472040176 0.15398015081882477
-0.01849549636244774 0.03245661407709122 0.1540997326374054
-0.018252292647957802 0.032474614679813385 0.15434084832668304
-0.018011607229709625 0.032511573284864426 0.15446043014526367
-0.01777092181146145 0.032548531889915466 0.1545799970626831
-0.01752578467130661 0.03257041424512863 0.15469905734062195
-0.01728697493672371 0.03261108696460724 0.15469661355018616
-0.017042478546500206 0.03264820575714111 0.1548161506652832
-0.016792889684438705 0.0326550155878067 0.15493467450141907
-0.016549628227949142 0.03268061578273773 0.1549317091703415
-0.01630513183772564 0.032717734575271606 0.15505123138427734
-0.016060635447502136 0.03275485336780548 0.1551707535982132
-0.01581292226910591 0.032765377312898636 0.15516726672649384
-0.015564002096652985 0.032783620059490204 0.15540830790996552
-0.015319476835429668 0.03282453864812851 0.15540578961372375
-0.015071198344230652 0.032858021557331085 0.15564729273319244
-0.014825467020273209 0.032906658947467804 0.15588930249214172
-0.014579705893993378 0.032959096133708954 0.1560092717409134
-0.014329521916806698 0.0329926572740078 0.1562507599592209
-0.014082808047533035 0.03304513543844223 0.15637071430683136
-0.013832954689860344 0.033109210431575775 0.15661314129829407
-0.013582100160419941 0.03313133865594864 0.15673211216926575
-0.013330651447176933 0.03318021446466446 0.15697403252124786
-0.01307713333517313 0.03321392089128494 0.15721547603607178
-0.012826535850763321 0.033281825482845306 0.15733583271503448
-0.012571184895932674 0.03330034762620926 0.157576784491539
-0.012318920344114304 0.033368319272994995 0.15769712626934052
-0.012062378227710724 0.03338688984513283 0.15793806314468384
-0.01180633157491684 0.033451229333877563 0.1581803858280182
-0.011549166403710842 0.03350035101175308 0.15842223167419434
-0.011292925104498863 0.03355323523283005 0.15854206681251526
-0.011034496128559113 0.03361767530441284 0.15878435969352722
-0.010776020586490631 0.03364012390375137 0.15890322625637054
-0.010515686124563217 0.033704645931720734 0.15914548933506012
-0.010255333036184311 0.0337233766913414 0.15938636660575867
-0.009994970634579659 0.03379169851541519 0.15950658917427063
-0.009730183519423008 0.03384114429354668 0.15974833071231842
-0.009470443241298199 0.033878911286592484 0.15986764430999756
-0.009203780442476273 0.033924639225006104 0.16023139655590057
-0.008934559300541878 0.034004803746938705 0.1604740023612976
-0.008667867630720139 0.03405433148145676 0.160715714097023
-0.008399911224842072 0.034119173884391785 0.16095788776874542
-0.008129436522722244 0.034165069460868835 0.16132158041000366
-0.00785449892282486 0.03424547612667084 0.16156411170959473
-0.007585901767015457 0.034295082092285156 0.16180579364299774
-0.007311616558581591 0.03434113413095474 0.1621694415807724
-0.007032868452370167 0.03442170470952988 0.1624119132757187
-0.006763629615306854 0.034456074237823486 0.1626531332731247
-0.00648488150909543 0.03453664481639862 0.16289560496807098
-0.0062086619436740875 0.034586578607559204 0.16313718259334564
-0.005927396006882191 0.03464818745851517 0.16350118815898895
-0.005653053056448698 0.034701839089393616 0.16362076997756958
-0.0053711459040641785 0.03474821895360947 0.1639842987060547
-0.005093633197247982 0.03481726720929146 0.16410429775714874
-0.0048136031255126 0.034867361187934875 0.16434581577777863
-0.004529761150479317 0.03491761535406113 0.16458728909492493
-0.004254776984453201 0.034956030547618866 0.16470639407634735
-0.0039690593257546425 0.03500257059931755 0.16506986320018768
-0.0036877356469631195 0.035071782767772675 0.16518980264663696
